# .PCD v0.7 - Point Cloud Data file format
VERSION 0.7
FIELDS x y z
SIZE 4 4 4
TYPE F F F
COUNT 1 1 1
WIDTH 1519
HEIGHT 1
VIEWPOINT 0 0 0 1 0 0 0
POINTS 1519
DATA ascii
-3.6950235 12.233389 -45.362827
-2.0017123 2.3263631 -45.06987
-3.2601936 3.4954002 -45.151821
-2.3707299 3.5850685 -45.073326
-3.957514 3.9125903 -45.140095
-3.5742664 3.6027787 -44.874172
-0.41231415 3.9021225 -44.887897
-0.20354232 3.9333007 -44.897812
1.3684871 3.8965821 -45.181351
-7.1597724 5.5701728 -44.905121
-9.6720543 5.6460195 -45.061829
-2.4883254 12.093888 -45.048721
-62.072361 1.0976373 -44.439613
-6.1815209 3.6021063 -44.514313
-3.5250814 3.8728888 -44.40377
0.074984476 3.8594735 -44.72242
-9.872654 5.4922342 -44.708397
-7.277647 5.4593983 -44.730099
26.119196 0.54769623 -44.150169
-6.1587458 1.8238289 -44.147198
-6.8218775 3.467788 -44.309834
-3.1453254 3.5191379 -44.133625
0.53507513 3.7657003 -44.374207
-3.1338882 5.2000561 -44.217762
-7.3341064 8.6909409 -44.157181
-2.4654679 8.6145592 -44.225616
-10.114484 8.8804388 -44.24279
-2.2428069 10.406957 -44.31699
-3.5169115 1.7989697 -43.901024
-2.6558075 1.7923709 -43.819332
-4.0257373 3.4101689 -43.854469
-6.7376723 5.159441 -43.85635
-9.779418 7.1406026 -43.998913
-7.8391576 8.6413822 -43.740849
-8.6245909 10.308262 -43.794136
-3.7676222 10.21378 -43.649139
-2.9853928 10.206841 -43.681538
-2.7326996 10.269751 -43.846695
-2.7348719 10.542392 -43.67804
-1.397436 11.956361 -43.644062
29.134623 0.76818103 -43.580051
-3.4203568 2.1182566 -43.570374
-3.9006252 3.4572275 -43.23283
-3.007935 10.234638 -43.495499
-3.1608486 11.647361 -43.337097
-2.1924057 11.759909 -43.367535
-1.5698849 11.931186 -43.441402
-4.6356254 9.9597559 -42.873081
-4.1071992 9.9659624 -42.846661
-4.5946198 10.184834 -43.136852
-2.3922651 10.162003 -43.053123
-9.3524828 11.746595 -42.817757
-3.1575129 11.765424 -43.006779
-2.7540569 11.63339 -43.175667
2.929559 11.718765 -42.917973
0.52751857 5.1642976 -42.426472
6.4370003 5.191412 -42.428944
6.5274291 5.286911 -42.510258
-9.8476028 6.9213972 -42.534164
-9.0638885 8.5027933 -42.589191
-1.833599 10.290965 -42.550377
-4.2245321 11.526084 -42.651421
-3.856478 11.512583 -42.776497
3.1814086 11.545614 -42.470966
-9.1128302 11.830975 -42.672119
-3.4867077 12.075402 -42.503471
-1.8225714 12.115998 -42.772114
2.3483455 12.103585 -42.718376
15.350696 0.088688061 -42.356335
3.2357163 3.5277374 -42.023167
-4.0480084 4.967545 -42.358585
0.83576107 5.1702909 -42.177208
6.6743164 5.1822243 -42.064888
-1.3941642 6.7072315 -42.266094
0.065743767 8.2801933 -42.260414
-10.226056 8.6754045 -42.065895
-9.310586 8.5557766 -42.107872
-9.0136585 8.4303083 -42.064571
-7.8158646 8.4395733 -42.29863
-7.4991651 8.4231148 -42.327133
-3.4905322 8.4896078 -42.111774
-2.6740894 8.5019188 -42.244373
-4.1747875 9.9222317 -42.181705
-3.9036081 11.593699 -42.268761
-2.883595 11.519124 -42.128819
-2.6275778 11.568101 -42.357048
2.0685217 11.317923 -42.168781
-2.6345851 11.996923 -42.251797
1.7258099 11.693228 -42.170834
-62.275089 -3.9325633 -41.650352
16.066948 0.091823675 -41.791931
2.7951038 3.571104 -41.911037
3.2337599 3.3892076 -41.983486
3.3135786 3.6579702 -41.935608
0.76663035 5.0226631 -41.68787
1.277629 5.1425562 -41.821877
1.9956456 5.1314607 -41.702339
2.4553487 5.0502973 -41.6283
3.8272381 5.1492152 -41.854599
6.8320818 5.1701293 -41.667252
-10.080857 6.816268 -41.820148
-9.4592047 8.3329191 -41.788956
-6.7867308 8.3063221 -41.710381
-3.2385533 8.2312098 -41.816391
-9.5232325 9.9924269 -41.632401
-8.6458607 9.9376631 -41.709911
-10.266006 10.00042 -41.647926
-9.704463 10.008524 -41.784184
-9.1768064 10.059848 -41.846661
-3.4732695 11.401154 -41.766811
3.7625699 3.5751176 -41.214298
2.4840941 4.9104548 -41.567738
5.6628361 5.0305991 -41.424908
7.7353282 5.1772852 -41.538296
-1.3817195 6.6072216 -41.49741
1.7170217 6.4746051 -41.415218
-8.3996496 8.4780064 -41.336586
-10.896987 9.9425755 -41.532494
-10.575949 9.8739233 -41.4282
-10.073661 9.8579407 -41.421425
-9.7736015 9.9123344 -41.420555
-9.3660717 9.87603 -41.444016
-5.5479236 9.8902378 -41.480362
-9.6322174 10.018748 -41.368626
9.7335968 3.626008 -40.889462
2.5910752 4.8161149 -41.012127
3.3885593 4.8314548 -41.095573
1.5571371 6.4996424 -40.813625
4.0120435 6.4334927 -40.957176
-9.9237432 8.2400322 -41.198639
-8.6322594 8.2301292 -41.040417
-8.0463829 8.1551552 -40.98111
-7.691751 9.7209816 -40.875633
-7.0026217 9.7660618 -40.944016
-9.9867468 11.298013 -40.954842
23.202017 0.58848441 -40.538673
30.348627 2.4684772 -40.424892
2.2591555 4.9797897 -40.540543
7.7130809 5.0977788 -40.744404
13.941043 5.1492505 -40.636177
3.9882019 6.3780141 -40.466824
6.5681701 6.4629617 -40.732227
6.8903084 6.5141897 -40.517761
7.5835052 6.5499806 -40.634842
-7.9007154 8.1512518 -40.788116
4.962996 9.5506983 -40.442719
-7.3738313 9.7158222 -40.617626
22.905125 0.49275112 -40.174099
-5.9694929 1.722719 -40.349419
10.461164 5.0941119 -40.233982
29.300894 5.8667006 -40.157078
1.0697868 6.3775902 -40.215965
4.6137271 6.3928437 -40.067413
3.9248829 6.4332228 -40.397938
6.5974131 6.4700332 -40.14418
8.3005905 6.5124865 -40.241768
-7.3427467 8.2165508 -40.043602
43.280922 15.884367 -40.18269
28.861799 4.1412158 -39.927399
9.6227856 5.0269308 -39.873337
0.35231248 6.3404374 -39.991241
0.53456593 6.3092136 -39.801731
1.2299443 6.3137217 -39.813957
4.3920412 6.3896751 -39.910709
-9.5070877 6.4729476 -39.627846
11.181046 6.5432911 -39.727222
51.27367 7.5736866 -39.894402
2.2474227 9.2672205 -39.612995
24.424683 0.67797786 -39.34063
6.2093663 1.7873702 -39.317528
6.5023823 2.0294814 -39.250237
29.163086 3.9351516 -39.568382
1.5201747 4.8009925 -39.584846
6.7625303 6.3645506 -39.397049
-9.2152948 6.4611053 -39.482239
10.284806 6.4664721 -39.491985
11.043047 6.5044618 -39.538937
3.2867346 7.6896176 -39.396442
3.896961 7.731112 -39.33868
29.831541 7.6632195 -39.457489
-10.654763 9.5368214 -39.410202
-11.370392 11.114088 -39.213097
-11.057374 11.193826 -39.248783
-10.772875 11.080278 -39.351864
-11.581174 11.352046 -39.233799
43.488071 15.780252 -39.414936
28.566765 3.8633587 -38.973442
-1.6285735 4.7505054 -38.857952
-1.5215154 4.7838955 -38.897625
-9.5208321 6.2704163 -38.929672
2.2013063 6.2507448 -39.182213
-9.5496273 6.4613333 -38.820324
28.443964 7.4995837 -38.881985
3.6984129 7.7382107 -39.134491
29.954792 7.7562685 -38.823872
8.1094828 9.1931849 -38.959011
2.1473699 9.5009766 -38.856262
-8.7221575 9.7151661 -38.939003
-7.9614549 9.7003946 -39.027149
2.3780456 10.712755 -38.882172
3.8230493 10.53802 -38.974617
-14.039852 11.194947 -39.178745
-7.8233447 10.945688 -39.016651
-7.5515451 11.069387 -39.012573
-11.672573 11.21401 -39.157326
41.8787 13.231861 -39.138603
24.912439 0.58613938 -38.586411
26.813129 3.9450595 -38.43343
27.822668 4.0793796 -38.441708
28.949329 4.1964717 -38.663666
15.933701 4.9227433 -38.761768
28.577669 5.8602204 -38.418159
-9.6567268 6.3030739 -38.496296
-0.32534871 6.110817 -38.529163
0.14959194 6.0484204 -38.510735
7.3753734 6.2729197 -38.662426
31.390772 7.6929512 -38.447582
2.3078406 9.1315403 -38.544422
7.0566759 9.1261883 -38.441727
2.5683007 10.366175 -38.583447
-8.6689529 10.626518 -38.522408
2.436466 10.458757 -38.786209
4.4922056 10.75865 -38.77219
-9.5902185 10.866275 -38.603874
-13.057519 11.335913 -38.718281
28.882635 3.7754972 -38.050575
27.82589 4.0290585 -38.373077
-2.3527966 4.6974602 -38.217094
-9.6834841 4.8157439 -38.057747
16.508329 4.8773565 -38.034897
28.152962 5.6512914 -38.333385
-9.7028732 6.2481837 -38.199371
-9.5398111 6.2514987 -38.128651
-0.90023369 6.1120052 -38.335415
-0.62229037 6.0713129 -38.246433
7.24266 6.1675816 -38.224236
7.7035985 6.2048311 -38.214241
3.7816913 7.5553637 -38.37009
5.9533663 7.565218 -38.14225
-9.4322548 7.6908808 -38.267799
8.4420967 7.6810675 -38.262196
0.80004519 8.9484119 -38.26149
2.2992692 9.1057072 -38.066792
-9.6394501 10.746096 -38.345551
4.018784 10.522986 -38.245975
-14.904819 11.111267 -38.240795
-14.419673 10.961316 -38.10603
-14.151345 11.038003 -38.190845
-12.42908 10.928121 -38.048862
-12.351157 11.052332 -38.302063
-10.555687 11.083528 -38.39838
-10.245898 10.825827 -38.278706
-14.9255 11.20847 -38.204067
-14.599174 11.275778 -38.193287
42.280525 13.144633 -38.144485
43.908409 15.694023 -38.166603
-30.915833 2.1310682 -37.924732
16.370302 3.3206437 -37.644321
16.732914 4.9218822 -37.987373
-9.8360767 6.2031565 -37.84819
-9.5904045 6.1964025 -37.74987
-0.58187103 6.0438557 -37.891579
-0.17509557 6.1495166 -37.827805
0.4839668 6.0210557 -37.748905
7.4713073 6.1492481 -37.877132
9.1868181 6.1956706 -37.989628
-9.5390482 7.5924611 -37.863712
0.50151503 7.381258 -37.694695
4.3560295 7.4059258 -37.744282
4.4496908 7.4629974 -37.781105
28.463099 7.4788666 -37.782185
-9.618722 7.693501 -37.771568
-9.3906803 7.6379514 -37.650677
0.50769126 8.9216461 -37.937954
1.5185007 8.89851 -37.782387
1.8880516 8.8749809 -37.68866
2.5695536 8.8785276 -37.665482
-10.104689 9.5662212 -37.895912
-9.7198372 9.3168097 -37.96841
-11.841645 10.773002 -37.830959
-10.208138 10.60905 -37.759201
-9.6785421 10.555183 -37.699196
-9.5988417 10.41458 -37.654484
-9.0826483 10.740121 -37.938313
-8.3485184 10.694034 -37.918304
-12.599954 10.856089 -37.916302
-12.007647 11.061964 -37.897549
-11.625852 10.826291 -37.891865
-10.897493 11.282526 -37.998405
0.75982696 5.9545608 -37.320499
0.83664924 5.970367 -37.345261
2.2174394 5.9673023 -37.264133
3.7603464 5.9503398 -37.348709
28.05537 5.6868372 -37.396439
-9.7820711 6.1669865 -37.466225
2.7898822 6.0037546 -37.553375
5.4861403 6.03651 -37.485405
-9.8153248 7.5232177 -37.320152
-9.5412254 7.5782471 -37.378532
-0.78631431 7.237165 -37.202656
0.22447577 7.3358588 -37.478043
1.0113807 7.3125358 -37.394112
6.3540368 7.4249067 -37.562611
6.4345622 7.4939413 -37.294739
28.430595 7.3160257 -37.319386
29.198614 7.4948573 -37.344818
-9.7741642 7.6373715 -37.413517
-9.5879526 7.6491127 -37.530239
0.51914752 8.6022301 -37.238007
-9.7290764 9.097888 -37.27219
-9.4911919 9.0202408 -37.283207
0.95134825 8.871665 -37.39027
-9.2372198 9.4495764 -37.55024
3.5778897 9.2320795 -37.501244
-8.866456 10.328769 -37.504166
3.7113383 10.351297 -37.344719
-10.558705 10.501698 -37.562462
-9.8207722 10.537214 -37.573227
-9.445056 10.65339 -37.444855
-8.9880571 10.594011 -37.568039
-8.5231695 10.533742 -37.342335
-63.099747 -3.9417808 -36.961334
-30.576885 0.75165921 -36.967655
-5.9418254 0.55309373 -36.873688
-30.120047 1.9630554 -37.030098
28.76042 2.3543527 -36.925972
58.787415 3.5967915 -37.142887
58.807865 3.4774079 -36.995804
61.22683 3.5540986 -37.012814
27.921679 3.9115379 -37.042412
58.704651 3.6557777 -37.140873
-2.2175148 5.9333816 -37.108402
27.921726 5.6189375 -37.043655
-9.8213091 6.1433492 -37.032581
1.4395839 6.019361 -36.894314
-9.7444401 7.5424423 -37.132072
0.57625705 7.5341105 -36.887253
0.99728382 7.2044415 -36.933445
-9.9289188 9.0449104 -37.193645
3.7390766 9.9220495 -36.821941
2.9728823 10.102925 -36.929207
42.578953 13.073116 -36.942822
-65.014992 -4.1650443 -36.664909
61.294319 3.5095079 -36.797249
27.611052 3.9026396 -36.616081
-3.3421218 4.3895121 -36.749821
-9.8825178 4.6481123 -36.75914
-3.273747 4.4840865 -36.613407
13.504862 4.7198873 -36.523071
27.942663 5.4624705 -36.627663
-9.8050623 5.9569445 -36.485439
-2.6970448 5.8082795 -36.549431
2.156096 5.9586077 -36.436275
28.282095 5.667922 -36.659531
30.389923 5.6484771 -36.503666
-9.9032297 6.0661979 -36.548828
34.19838 6.0713763 -36.572739
0.75349665 7.196137 -36.594059
-9.8926172 7.4322677 -36.603741
-0.65296906 7.2936101 -36.649307
1.5494587 7.2323847 -36.740795
28.627598 7.2403178 -36.432041
28.930721 7.2564573 -36.55748
33.682724 7.8616934 -36.558392
0.99925065 8.5248251 -36.756561
43.0438 8.942153 -36.414589
3.0935812 9.8939734 -36.777126
3.5789654 10.188468 -36.653519
3.6795468 10.354912 -36.651302
4.0674648 10.000861 -36.533825
-65.071518 -3.9464281 -36.370251
22.530071 0.46283633 -36.154297
-6.0881586 1.5604264 -36.095108
-6.2375045 1.8004596 -36.340866
28.622849 2.2568665 -36.08403
27.113733 3.8794518 -36.027199
28.009043 3.6902752 -36.201031
-9.9346371 4.6050601 -36.325859
-3.5052912 4.4617701 -36.178963
-3.0087776 4.4619951 -36.207336
28.321251 5.4708157 -36.302567
-9.8738041 5.9261189 -36.139549
1.7811301 5.7631898 -36.020908
5.109108 5.8297839 -36.14959
-9.8625336 6.0087872 -36.314754
1.7561163 7.0703745 -36.308548
-9.8780594 7.3423758 -36.192719
1.2917951 7.4463429 -36.379623
6.5812864 7.2636299 -36.317799
8.8063755 7.2939334 -36.371689
28.695131 7.2134504 -36.21526
28.865314 7.3086753 -36.061947
29.706886 7.3031144 -36.159081
-9.7969608 7.64574 -36.229103
1.6159784 8.3636494 -36.032604
1.5410707 8.6087656 -36.390133
1.772246 8.414299 -36.383884
42.855 12.976164 -36.38472
28.190777 2.232492 -35.784321
29.019833 2.305923 -35.621452
34.755161 2.454597 -35.888195
59.167587 3.581867 -35.948326
59.317303 3.5023658 -35.932934
27.87525 3.8945582 -35.825127
28.192291 3.8107445 -35.791595
28.598267 3.7980332 -35.784851
59.149361 3.6437912 -35.992317
61.584606 3.7221231 -35.977921
34.697578 4.2100139 -35.7715
-2.1910768 4.4065156 -35.794018
4.2861795 4.432478 -35.915234
4.5713549 4.4169693 -35.626038
27.895849 5.494422 -35.820824
28.238031 5.4513731 -35.787544
28.776747 5.5888877 -35.793934
29.024193 5.5937538 -35.755379
-10.013907 5.9296269 -35.748459
-9.9415607 5.9026475 -35.784565
4.5515394 5.752449 -35.84071
9.3617411 5.8416553 -35.636818
29.107668 5.6050286 -35.700058
32.149258 5.7220626 -35.839207
34.234863 6.066474 -35.67865
-0.90910494 6.9484024 -35.607239
-0.51894611 7.0318007 -35.665516
1.1247869 7.0568299 -35.699863
1.4708464 7.0841794 -35.610241
8.7922773 7.1967821 -35.934666
-10.006383 7.3548069 -35.784153
-9.9544725 7.3213024 -35.876907
3.5736048 7.3771667 -35.857506
9.4029007 7.2276578 -35.906403
28.635124 7.2127261 -35.603142
29.137775 7.311327 -35.840103
29.258205 7.289454 -35.735504
33.401005 7.7173376 -35.637856
-9.7808046 8.5535717 -35.66449
5.284719 8.4953499 -35.917053
42.968586 12.992019 -35.933254
29.197214 2.3101037 -35.582462
-3.6291206 2.9458542 -35.575485
28.23947 3.8321793 -35.499531
28.659792 3.8827486 -35.336365
33.293121 3.909765 -35.251335
-0.03621915 4.3363352 -35.221767
4.6766777 4.3636131 -35.245201
27.877104 5.4550676 -35.274223
28.274088 5.4797668 -35.361008
28.589001 5.5291281 -35.305122
29.241117 5.4049149 -35.490456
-10.024491 5.859571 -35.425823
-9.9344616 5.8499894 -35.348309
-1.5450917 5.6373148 -35.481861
32.67841 5.9179697 -35.315502
-10.015998 7.1965132 -35.512653
-0.82533514 6.9713211 -35.252361
-0.53300881 6.9408402 -35.256657
1.3700088 6.9854093 -35.47649
7.3272886 7.0535059 -35.468513
-10.039116 7.2799048 -35.40741
-9.9532204 7.2238874 -35.44965
28.623642 7.2116275 -35.506496
29.366552 7.2651067 -35.348667
29.689341 7.2719355 -35.234581
31.894867 7.5167351 -35.239048
33.524231 7.5587811 -35.229218
34.318398 7.8031287 -35.589901
-0.12437648 8.1798906 -35.413563
-9.9758501 8.5322866 -35.419594
0.15730171 8.4261599 -35.583504
43.183212 12.887349 -35.390308
27.925257 3.5690024 -35.120029
28.183727 3.7396159 -35.123642
28.594597 3.8847167 -35.068726
32.69183 3.8678408 -35.073738
33.014881 3.8912461 -35.184746
-1.4421791 4.3208065 -35.031662
32.691498 4.0722971 -34.900955
16.216925 4.5863028 -35.005188
2.8978219 5.5362725 -34.805729
28.706083 5.4945574 -35.027996
28.904942 5.5075035 -34.906662
29.362402 5.4258509 -34.876915
30.031666 5.4923382 -35.166962
-10.068464 5.7954321 -35.008003
2.3760016 5.6135321 -35.005241
30.400135 5.6489763 -34.985565
32.626957 5.7967911 -35.056347
32.969654 5.7173762 -34.998035
33.380501 5.7092476 -34.965164
33.722897 5.7668266 -34.891899
35.903358 5.9524031 -34.996773
-10.101042 7.1227217 -34.928207
-1.1837419 6.9179301 -35.020905
-0.13555117 6.8393989 -35.165016
0.14573765 6.9950933 -35.162891
1.7417666 6.9152265 -34.924366
2.1397786 6.9363194 -35.06551
7.5991964 7.0830836 -35.063271
28.904985 7.1625042 -34.832008
-10.141875 7.4304123 -34.882301
29.233971 7.235415 -35.19862
33.062996 7.5477138 -35.015244
34.863068 7.7418547 -34.824364
2.6186368 8.1953449 -34.872814
5.9219112 8.2176256 -34.94112
6.5792718 8.2785187 -35.094402
-9.8317137 8.5995474 -35.122952
3.5302825 8.4975185 -35.096115
14.529214 9.1939583 -34.801544
0.48055947 9.5933218 -34.897385
0.76945555 9.8554935 -34.816376
43.33252 12.911735 -34.932251
4.8150229 2.8650422 -34.400406
5.5328283 2.8777449 -34.476986
29.092907 3.588414 -34.459915
27.828985 3.8565643 -34.549389
28.332586 3.7796175 -34.560112
31.032305 3.9882073 -34.455509
-3.7585518 4.2628331 -34.487076
-3.1489067 4.2531929 -34.468334
3.7204285 4.2879686 -34.694633
4.2767811 4.1593723 -34.551685
32.492805 4.0162916 -34.633717
-10.201036 4.4435396 -34.672806
14.464356 4.5719633 -34.667671
15.166367 4.5788937 -34.442234
-3.3370671 5.51296 -34.561268
-3.1559372 5.51826 -34.676334
-2.5601449 5.56738 -34.702377
1.5392085 5.5163641 -34.715744
1.6734189 5.5097585 -34.719963
2.1792943 5.5302911 -34.721371
2.7155256 5.5827026 -34.651237
2.9772153 5.5520573 -34.556473
3.3638721 5.5846343 -34.605869
28.544708 5.4746661 -34.416168
29.040854 5.4823914 -34.477116
29.777166 5.571959 -34.419495
30.304579 5.5973315 -34.706879
-10.152424 5.7420583 -34.566067
-1.555005 5.7161531 -34.723312
32.483936 5.7532067 -34.600269
-1.3359287 6.7353148 -34.605553
-10.10615 7.0993042 -34.63015
-1.1559398 6.9239168 -34.764164
0.78640938 6.9130363 -34.710224
29.204855 7.1696534 -34.567444
31.160744 7.3654795 -34.660076
31.210846 7.367105 -34.62994
31.855366 7.3258066 -34.611629
34.256416 7.6168022 -34.793228
-10.096982 8.355998 -34.554401
3.3060608 8.2205296 -34.641621
3.7451339 8.190196 -34.625107
-10.076694 8.5354729 -34.678257
1.0350761 9.4473381 -34.693657
1.371785 9.4924479 -34.798679
0.16865291 9.6485119 -34.742146
5.3781409 9.7653933 -34.784058
-66.13475 -4.1408691 -34.291451
-6.0995574 -0.60215122 -34.134869
5.0138464 3.0092015 -34.329575
5.3632298 2.9545665 -34.243744
28.189562 3.5251491 -34.042988
28.602306 3.5994396 -34.032242
29.300865 3.5920656 -34.319237
28.599525 3.7423258 -34.241173
29.189829 3.6946363 -34.38525
29.482933 3.8129647 -34.163338
29.761074 3.8595219 -34.05864
31.08094 3.9306574 -34.313797
-3.8104424 4.233017 -34.219357
-3.3209004 4.2114868 -34.12553
4.7180781 4.1496563 -34.326565
8.0853386 4.2925816 -34.005257
-2.0878878 5.4238534 -34.092438
-1.8187376 5.4329777 -34.215263
-0.16254547 5.4410191 -34.140564
0.091328166 5.4444122 -34.03867
29.450956 5.3150158 -34.246597
30.214752 5.5445113 -34.276485
8.2398834 5.6306462 -34.317154
35.242279 6.0299926 -34.256062
-1.4908247 6.7149286 -34.376904
-10.144406 7.0377717 -34.277344
28.802137 6.9971976 -34.146324
29.238346 7.0229921 -34.137154
30.074289 7.1536632 -34.208546
29.899931 7.205195 -34.370262
30.295134 7.2031851 -34.013103
30.503983 7.2244267 -34.007652
31.532837 7.2821646 -34.322979
33.742954 7.4657183 -34.097679
2.1375203 7.917881 -34.060863
33.845303 7.6167541 -34.162956
-10.180831 8.2549782 -34.224293
-0.48506305 8.0928469 -34.04443
2.0919828 8.1003923 -34.011753
2.7390127 8.2376375 -34.210346
2.982091 8.1508026 -34.3909
-10.150587 8.4890785 -34.288033
4.6409864 9.5859175 -34.188667
43.585953 12.817212 -34.299961
29.365978 3.5784914 -33.990036
28.119524 3.8143578 -33.677494
28.645027 3.7720819 -33.93454
29.431824 3.7306635 -33.662674
29.983776 3.934911 -33.945133
30.211094 3.8437996 -33.748573
30.589863 3.9981804 -33.79731
31.092062 3.6611693 -33.660931
35.04018 3.925947 -33.627773
-3.5590506 4.184154 -33.73037
4.8002086 4.2102709 -33.954098
7.1616287 4.2407351 -33.83025
7.4084387 4.2589226 -33.864765
31.001602 4.0287766 -33.893936
16.460194 4.6120501 -33.99004
-3.664181 5.3766398 -33.728359
-2.5446234 5.3745098 -33.759933
-1.8684615 5.4118905 -33.810886
2.681129 5.3529735 -33.604977
3.141113 5.4500833 -33.948704
4.8863702 5.46662 -33.813454
7.6091809 5.4706678 -33.657818
29.433254 5.4333982 -33.696678
29.856892 5.4482274 -33.697582
30.163363 5.5293078 -33.646179
2.7136624 5.6132264 -33.959404
32.64753 5.7063408 -33.683258
32.99435 5.736609 -33.894924
35.859543 6.0344791 -33.662121
-1.7864006 6.7048082 -33.815289
-1.1220871 6.6843619 -33.898254
-0.49553794 6.7789516 -33.995865
-0.17368673 6.7049937 -33.849762
1.9191163 6.673336 -33.819588
2.1641889 6.7165937 -33.718517
4.6835723 6.7813811 -33.944862
5.1894469 6.6291604 -33.681999
-10.222374 7.0032773 -33.9142
-1.2806693 6.8133025 -33.903
29.196539 7.0871868 -33.960236
29.5217 7.1139069 -33.807751
29.799852 7.1167216 -33.668446
30.282303 7.1173773 -33.986744
30.444002 7.2333045 -33.956802
33.663261 7.5158997 -33.636993
34.804165 7.5641613 -33.965221
-0.86128086 7.8869729 -33.978935
34.184284 7.6125283 -33.901028
34.62323 7.6583962 -33.75219
-10.198663 8.2107115 -33.896664
-10.21565 8.4647303 -33.933731
-9.888154 8.7356272 -33.963371
-11.104402 9.4872608 -33.614151
-9.9271307 9.4556456 -33.777534
6.5811357 0.26118353 -33.300301
6.5357809 0.5056628 -33.300465
6.3254862 2.9437366 -33.227325
6.5941877 2.9181702 -33.288761
29.495199 3.7383857 -33.455044
29.768229 3.8893721 -33.474201
30.021435 3.9089341 -33.508358
31.071732 3.7429304 -33.515839
31.906647 3.6885471 -33.292908
32.004616 3.7857633 -33.30703
32.536053 3.9785533 -33.469646
3.479816 4.0198803 -33.308281
3.8802187 4.1189237 -33.298653
31.914751 4.025507 -33.270267
33.485298 4.0272889 -33.308151
33.631908 4.0659537 -33.360306
44.329559 4.5888624 -33.252033
-10.26843 5.5205574 -33.296062
-3.000788 5.3999171 -33.420441
-2.5989852 5.3826313 -33.478596
-2.3776288 5.4086671 -33.526352
-1.403173 5.3535042 -33.347324
3.5045838 5.3904428 -33.44426
4.5301466 5.3843594 -33.398075
7.5338764 5.4593024 -33.594406
29.727558 5.347291 -33.383793
30.25362 5.4935694 -33.449928
30.897732 5.4083014 -33.308186
33.185474 5.5979609 -33.347103
33.20034 5.5513654 -33.468124
33.102097 5.7813258 -33.370235
33.245319 5.7676535 -33.390236
-2.0443494 6.5664053 -33.5774
2.575706 6.673666 -33.556759
5.1383648 6.7095065 -33.224323
5.46837 6.7016373 -33.502617
6.6985908 6.7182608 -33.375896
-10.289682 6.876092 -33.219868
29.177748 7.0397563 -33.585331
29.224602 7.0394468 -33.569126
29.853813 7.0905886 -33.556709
33.721039 7.486217 -33.411396
-0.26335648 7.7606664 -33.439209
34.780655 7.6107769 -33.264664
35.307453 7.6798983 -33.235497
35.65987 7.6155429 -33.554802
-0.80448908 8.3682194 -33.584923
16.340654 8.75175 -33.321907
-10.052939 9.411335 -33.452942
-9.9936514 9.3238697 -33.324581
0.16088152 9.344923 -33.563938
43.901527 12.740868 -33.405434
45.662865 15.180927 -33.4888
6.4219728 2.900347 -33.186775
3.2718005 3.9766321 -32.915508
29.793581 3.6606226 -33.170116
30.030472 3.6684632 -33.070408
33.26627 3.9968312 -33.034481
6.612061 4.11339 -32.994667
6.840611 4.1436949 -33.005009
33.891052 4.1277137 -32.957832
36.647285 4.2967896 -33.175598
16.919638 4.5015087 -33.118198
-10.261291 5.5352802 -33.022556
-2.8340323 5.4881206 -33.019958
7.1491294 5.3267193 -32.814861
7.3111939 5.3417549 -32.891407
30.602865 5.3145008 -33.061749
33.23016 5.6940603 -33.01503
-10.321825 6.7411342 -33.098736
-2.9835372 6.413486 -32.843113
-10.316935 6.9605231 -32.959866
2.6559417 6.8439279 -32.914234
-1.263249 7.631422 -33.016163
-1.1093093 7.8715162 -33.010376
-0.47691 7.8067398 -32.948784
2.6390555 7.6475511 -32.845284
35.869522 7.7187858 -33.132107
-10.271645 8.1190233 -33.047237
-0.77913558 9.6104221 -32.800335
48.533791 11.389161 -32.947044
26.663441 0.17204246 -32.729263
5.7967415 4.0501986 -32.400043
34.185814 4.0081921 -32.670181
-2.8485353 5.242466 -32.599041
5.0168986 5.2480564 -32.45631
14.521803 5.8319602 -32.720142
16.708019 5.9201441 -32.405968
-2.9785388 6.5069613 -32.636646
7.5027065 6.5480771 -32.743229
7.6968355 6.5414529 -32.663452
48.26107 7.0457973 -32.428394
2.1687288 7.5816274 -32.750202
2.7337599 7.56462 -32.633549
3.1772108 7.5633917 -32.430153
3.2834375 7.533205 -32.445705
-1.4072644 7.6015735 -32.715977
7.9403043 7.8065853 -32.703712
8.025692 7.7905488 -32.752987
46.794571 11.075232 -32.789322
44.279015 12.682148 -32.420338
-65.786652 -1.7650315 -32.217529
34.534622 4.0580096 -32.147598
4.9862323 5.1965947 -32.399426
5.9059081 5.1773553 -32.093395
-10.2252 5.5961075 -32.322605
15.860258 5.8478026 -32.24913
16.46456 5.7134538 -32.017677
4.7280011 6.3935246 -32.082275
4.8650751 6.3449564 -32.136196
-10.419901 6.7621264 -32.194992
-10.205426 6.6378064 -32.200432
4.5705009 6.4386063 -32.1259
15.80054 7.0583158 -32.124973
15.858294 7.3105249 -32.228355
-10.364023 7.8877769 -32.373508
3.2453985 7.7635069 -32.358681
-10.412228 8.122551 -32.231514
3.7245772 8.6872301 -32.005054
-7.4588695 9.0408049 -32.102226
3.0252864 8.8580923 -32.296356
46.105824 10.903252 -32.110447
-65.744995 -3.8348455 -31.776592
-5.3688836 0.10739093 -31.823833
-4.9828901 0.011415762 -31.824055
-2.3960416 0.0077403793 -31.65222
-5.3961897 0.52968025 -31.847193
34.136036 3.7526126 -31.907349
14.938624 5.7408109 -31.843706
-10.467178 6.5413036 -31.643829
16.333443 7.130682 -31.930922
16.41498 7.0604095 -31.83021
48.71349 7.1172981 -31.844767
48.857155 6.9657354 -31.610558
4.3633533 7.4474111 -31.942539
16.46628 7.2969179 -31.859381
-10.475083 7.7033715 -31.672958
3.814683 8.6393089 -31.999674
15.467651 8.4434853 -31.801735
3.830874 8.9952888 -31.955332
-0.1087307 9.3229837 -31.664248
47.16003 11.029023 -31.840803
-2.3589101 0.55525291 -31.529222
0.79598862 0.51100647 -31.231993
6.8763323 5.1335683 -31.27512
-10.756878 5.3104224 -31.208044
5.9418249 6.2478576 -31.5047
-10.425515 6.5477509 -31.503191
16.657814 7.0262718 -31.363552
16.959358 7.1238136 -31.487921
-3.678632 7.3318686 -31.355106
-3.3244112 7.9283967 -31.359173
-17.919003 8.5225239 -31.516628
-3.3739641 8.439662 -31.305416
4.2593803 8.5259171 -31.422768
1.1592361 9.2297335 -31.278967
-10.512884 5.4106798 -30.863613
-10.339831 6.4508429 -30.834375
-10.584051 6.8212285 -31.159885
16.818989 6.9801741 -31.121212
-10.542276 7.5979705 -30.986479
-4.5278225 7.4762292 -30.846701
6.3654833 7.320477 -30.884623
-10.432576 7.8250098 -31.198154
-10.195808 7.6891131 -30.857729
-3.0891905 8.5692797 -30.839973
-2.7731571 8.7224245 -31.050909
4.7407298 8.4976206 -31.153309
4.8135462 8.4369888 -31.100559
5.3677106 8.4733295 -31.146917
5.8620248 8.5491943 -31.161097
46.52853 10.870148 -31.186909
47.504894 10.97986 -30.86437
-5.4155855 -0.66284496 -30.74749
-4.8443952 -0.6605044 -30.69006
-5.3085012 0.38155323 -30.57128
-5.1451263 0.30257809 -30.65139
-4.6438241 0.27545619 -30.576408
-2.7885957 0.2968871 -30.437597
-10.689677 5.2235184 -30.67388
-10.396353 6.2959819 -30.515137
-10.600033 6.4961681 -30.593212
5.82726 7.2050285 -30.639549
-10.652308 7.8790917 -30.661566
5.8237586 8.3491144 -30.593021
-1.0636799 0.29474592 -30.305635
-2.9760852 0.50022787 -30.385237
-0.29165947 0.49429721 -30.200411
-26.952578 1.7942022 -30.119076
-10.601271 6.3287897 -30.155722
5.1898446 7.0734863 -30.17675
45.062401 12.537478 -30.357956
-5.7035999 2.49633 -29.864092
-27.702118 3.2929025 -29.861725
-10.515919 6.1956263 -29.69651
-10.391137 7.2559481 -29.655386
-13.792198 7.6287012 -29.834681
6.2550297 8.2155724 -29.998798
-2.3107862 8.6121187 -29.750103
13.378547 9.0705786 -29.683002
47.807014 10.925436 -29.871016
45.257717 12.502039 -29.639393
-28.304216 -1.311884 -29.207378
-28.155802 -1.0900691 -29.271299
6.3670979 0.30013752 -29.324625
-5.3371596 0.52672952 -29.549437
-5.3823218 1.4900323 -29.268873
0.12932566 1.2020105 -29.51305
0.56911552 1.3834653 -29.430763
-25.627892 1.8595377 -29.29314
-25.422426 2.0141129 -29.308094
0.734905 2.3933554 -29.41947
0.23921309 2.5573032 -29.436005
0.71536386 2.4946499 -29.392611
-28.136707 3.5388548 -29.215227
-27.9454 3.2586007 -29.461533
-27.474028 3.360137 -29.586044
0.10569804 3.5581987 -29.266096
-6.0317812 3.695735 -29.248295
-27.908632 4.800406 -29.346788
-27.297152 4.9219718 -29.356709
-26.416691 4.8446836 -29.516661
-10.748775 4.9910345 -29.29335
-10.742251 5.2228813 -29.393208
-10.694429 6.1895528 -29.420712
13.810905 7.8512297 -29.267811
-4.2532482 8.2773361 -29.542294
-3.1285892 8.1766634 -29.292057
13.320265 8.047821 -29.531334
45.317001 12.489237 -29.567982
-28.129934 -2.2436197 -29.129911
-28.181213 -1.3625338 -29.159433
-27.135925 -1.3206471 -29.024651
-26.144405 -1.2821792 -28.9233
-25.128338 -1.2692534 -28.813278
-28.066339 -0.90419614 -29.104088
-27.077436 -1.0744492 -29.14407
-26.130987 -0.98509032 -28.965147
-25.962612 -1.0055529 -28.979727
-25.060364 -1.0466418 -28.934631
-23.997725 -1.1075778 -28.873598
-23.92762 -0.74822325 -28.816565
-5.6563997 -0.56819761 -28.873436
-28.133942 0.23997545 -29.123798
-27.045687 0.22865182 -28.975153
-25.978405 0.28019378 -28.925989
-24.982832 0.27003598 -28.82214
-5.5441175 0.0098556634 -28.840662
-5.2370992 0.43912953 -29.00782
-5.5251198 1.1959915 -28.817085
-6.8284636 1.2917744 -28.907839
-5.4007969 1.5199199 -28.838066
-6.1414652 2.4424365 -29.03067
-5.7118497 2.575321 -28.849634
-5.2231426 2.5497108 -28.80677
-25.938667 3.1727407 -28.947859
-27.242102 3.3655229 -29.026421
-6.2837033 3.6562946 -29.08946
-10.762508 4.9647527 -28.813927
8.2179518 5.8976231 -29.18071
-27.741241 6.2757378 -28.923174
-26.128246 6.1622396 -29.105042
-10.720955 6.0770721 -28.992817
13.059615 6.5608506 -28.861219
-17.502733 6.9402876 -28.819424
13.003081 7.7190285 -28.945286
-3.7081411 8.7321415 -29.074585
-24.165733 -1.2580875 -28.737228
-28.270615 -1.1444888 -28.451553
-23.381355 -0.64541739 -28.590727
-9.170085 -0.56641066 -28.722595
-23.790808 0.25813228 -28.624495
-23.219809 0.28220233 -28.665398
-5.4418755 0.16920157 -28.611006
-5.3197155 0.45424384 -28.629917
-5.2339287 1.1826304 -28.491488
-9.3676195 1.4343758 -28.577171
-8.865613 1.2280791 -28.585276
-7.4579773 1.5295967 -28.558376
-5.2500935 1.4791076 -28.589844
-5.8770285 2.3800545 -28.668919
-5.4765553 2.3816643 -28.777519
-5.4435496 2.5322378 -28.662979
-24.961061 3.1806958 -28.752775
-26.082943 3.285619 -28.770821
-25.786505 3.2973802 -28.622252
-6.346971 3.5830834 -28.415224
-5.7798028 3.5668609 -28.486814
-11.121582 3.8467817 -28.443926
31.494659 3.7328744 -28.629084
-10.822637 4.8377566 -28.432087
-10.727383 4.9360051 -28.797508
-10.815922 5.9444642 -28.431341
-27.662052 6.2987041 -28.651089
-27.284426 6.2122993 -28.512329
-28.544926 6.4042497 -28.564056
47.832226 6.7643571 -28.552988
-16.7188 6.861908 -28.758997
-0.58935571 6.9349613 -28.51997
12.996674 7.5414138 -28.755581
-17.747934 7.8000741 -28.555008
-17.449179 7.8402138 -28.639767
-17.059168 7.7198672 -28.56472
-16.764704 7.8551254 -28.589165
-28.273943 -1.3301694 -28.090961
-22.743858 -1.2483509 -28.109919
-21.853209 -1.2374971 -28.029207
-22.710745 -1.0784527 -28.29534
-21.813198 -1.0663964 -28.190451
-6.0287242 -1.1328148 -28.180292
-22.10833 -0.6234048 -28.007885
-6.0427203 -0.7098065 -28.12318
-27.500916 0.24416384 -28.296053
-22.681324 0.19813786 -28.078533
-5.7087898 0.11157053 -28.108057
-5.4998026 0.35692853 -28.395189
-29.360336 0.4679727 -28.039856
-27.652876 0.44971263 -28.338898
-27.51889 0.61400437 -28.35833
-22.849134 0.63045079 -28.02894
-5.4462461 0.42447519 -28.163183
-9.3232822 1.5678738 -28.39348
-8.2025766 1.5437778 -28.25511
-5.9179006 1.2672288 -28.201366
-5.4270887 1.3326458 -28.131649
-22.703856 1.6263635 -28.099689
-5.8960147 2.3543811 -28.287884
-5.7364664 2.5060723 -28.142857
-5.4498506 2.4880204 -28.018072
-22.708981 2.976691 -28.031696
-29.110138 3.5322347 -28.101198
-28.148993 3.3496711 -28.08219
-27.923805 3.3621221 -28.113422
-27.269344 3.3493061 -28.172218
-26.291733 3.3668106 -28.204599
-6.510797 3.5073159 -28.087933
-6.3499088 3.548912 -28.315887
-5.9610033 3.5014429 -28.152714
31.663885 3.5088511 -28.206203
-25.272827 4.513804 -28.161604
-28.204739 4.8444352 -28.160278
-27.186014 4.8136444 -28.237793
-11.646384 4.950686 -28.24688
-11.296268 4.8943129 -28.316189
-11.089669 4.9228163 -28.315914
30.351841 5.0493956 -28.114523
30.755941 5.0874453 -28.238398
-18.132105 5.3018627 -28.019672
-11.436485 5.9327221 -28.207008
-10.995192 5.8848505 -28.201698
-10.507664 5.9571795 -28.209299
-28.204964 6.3515024 -28.353104
-27.426792 6.2449841 -28.208933
-11.37734 6.0728459 -28.249966
-10.665569 6.0844622 -28.255322
7.3762693 6.7269983 -28.083
-13.696534 7.298552 -28.29141
-6.0333953 8.651495 -28.382584
-21.017141 -1.2473735 -27.921152
-28.50894 -1.1258564 -27.619467
-19.208904 -1.1844995 -27.713764
-18.822075 -0.58396697 -27.657734
-18.483036 -0.6164282 -27.642822
-5.9520864 -0.54772687 -27.734692
-22.448051 0.12092467 -27.983528
-21.852148 0.17939718 -27.949356
-20.996292 0.24674353 -27.841557
-20.797575 0.38152277 -27.82081
-20.165585 0.10279508 -27.739494
-11.591921 0.38312656 -27.997503
-27.407379 0.68124545 -27.913412
-22.625359 0.52242583 -27.962528
-21.837652 0.52025986 -27.87834
-21.330534 0.46570918 -27.842606
-21.045082 0.46257606 -27.825523
-19.458004 0.59141797 -27.750587
-19.124866 0.58735305 -27.694958
-18.796295 0.58291739 -27.608709
-17.0746 0.49928963 -27.66214
-6.0271845 0.46044102 -27.691082
-5.4759855 0.46056616 -27.950005
-5.5467916 1.1605821 -27.648064
-22.615498 1.5100598 -27.924946
-22.376978 1.5021075 -27.928457
-21.758009 1.5721037 -27.837524
-20.996864 1.4623283 -27.84621
-17.694611 1.410184 -27.636314
-17.536026 1.5686456 -27.635397
-5.7890139 1.3962432 -27.68639
-5.5263686 1.459877 -27.827087
-29.085012 1.9313978 -27.786247
-27.790216 1.7888255 -27.960423
-27.085857 1.6932993 -27.930534
-22.628326 1.7788615 -27.911425
-21.756754 1.7846375 -27.796768
-21.441244 1.7752789 -27.822861
-20.983032 1.6941299 -27.923872
-19.309938 1.7655278 -27.737188
-18.8008 1.7338854 -27.605026
-30.864153 2.1608002 -27.857061
-27.007711 2.0258753 -27.698673
-26.785757 2.0047946 -27.783369
-5.7104039 2.358655 -27.741249
-5.5284033 2.3727837 -27.972628
-6.5779662 2.435081 -27.737057
-5.8592591 2.4522703 -27.817223
-22.56526 2.9727633 -27.825613
-22.297319 2.9946561 -27.788937
-21.748505 3.007617 -27.73674
-21.403091 3.0117979 -27.665333
-20.937174 2.9651985 -27.696421
-20.762983 2.8355045 -27.683655
-29.121893 3.5322869 -27.997559
-27.875429 3.2567537 -27.975569
-27.008799 3.3440983 -27.729704
-9.5924387 3.5901966 -27.609516
-7.3684521 3.5483432 -27.616961
-6.4754333 3.4918141 -27.674995
-17.65913 4.0729632 -27.908451
-17.515011 4.0626488 -27.898638
-27.756704 4.793601 -27.991385
-25.79834 4.516346 -27.694498
-11.676415 4.7812209 -27.702915
-27.698561 4.8207483 -27.846712
-11.621058 4.867363 -27.901421
30.667336 5.078661 -27.77495
-25.934467 5.9822478 -27.898153
-11.63776 5.8612309 -27.639362
-10.971538 5.9401817 -27.844952
-26.146652 6.2088647 -27.981375
-10.972784 6.0555649 -27.889982
-26.869337 7.5703292 -27.606302
-26.892786 7.6089172 -27.898567
-27.654745 -2.163955 -27.599615
-16.473175 -0.85341078 -27.498341
-15.727545 -0.84380877 -27.362831
-18.566835 -0.77629888 -27.568451
-18.049019 -0.57483333 -27.553642
-17.786667 -0.68827271 -27.529016
-17.333548 -0.56696236 -27.485878
-17.03536 -0.67420506 -27.479017
-16.630026 -0.5592342 -27.408562
-16.307419 -0.66624743 -27.378496
-15.718732 -0.59535098 -27.353827
-6.1977463 -0.5326854 -27.563736
-27.451981 0.32705078 -27.488348
-17.473541 0.21378347 -27.464664
-16.982775 0.15583792 -27.405502
-16.630098 0.13181105 -27.365562
-16.20834 0.1806251 -27.336323
-7.8058801 0.022655671 -27.241205
-6.8753195 0.28247869 -27.344877
-6.0705981 0.15710221 -27.21151
-5.8094888 0.25644591 -27.388233
-18.988686 0.55830479 -27.572861
-18.504953 0.50018758 -27.522793
-18.185177 0.51874119 -27.499834
-17.780178 0.53185356 -27.457788
-17.414043 0.49548355 -27.441666
-16.921955 0.53323585 -27.307449
-16.629473 0.52549297 -27.380598
-16.281807 0.47616658 -27.264921
-9.8160076 0.47979444 -27.398914
-5.7242093 0.47540301 -27.403515
-5.5782061 0.41548783 -27.484457
-17.747429 1.4661784 -27.483887
-17.395514 1.3563353 -27.537434
-17.083338 1.4436121 -27.506372
-16.669645 1.3891309 -27.305548
-16.247013 1.4592438 -27.288204
-9.6808338 1.4877127 -27.345528
-6.9441209 1.4024553 -27.491604
-6.5902176 1.4105902 -27.324017
-6.0826821 1.361405 -27.267784
-5.8168592 1.4013523 -27.457714
-29.856312 1.7386918 -27.562618
-29.319592 1.9938917 -27.201342
-28.614674 1.7826763 -27.308081
-18.810261 1.7479659 -27.546373
-18.518707 1.7087002 -27.46603
-18.144943 1.6924537 -27.43231
-17.743383 1.6739123 -27.475582
-17.36338 1.6583071 -27.497952
-17.111776 1.6493996 -27.521606
-16.695086 1.6427461 -27.390247
-27.137844 2.0236847 -27.513456
-6.9617591 2.3437638 -27.466276
-19.965361 2.7731276 -27.574585
-17.824383 2.7116947 -27.394867
-17.462038 2.7354169 -27.295401
-16.923935 2.643188 -27.261074
-16.653824 2.7320926 -27.281288
-8.6465569 2.5285957 -27.550819
-7.002111 2.4750004 -27.375326
-5.9015636 2.4441488 -27.472469
-20.198542 2.9072073 -27.596491
-19.404863 2.9446502 -27.50507
-19.041824 2.9197476 -27.460133
-18.582903 2.892765 -27.410398
-18.222971 2.8468187 -27.335587
-17.786352 2.8429458 -27.338043
-17.493885 2.8344922 -27.399736
-16.925339 2.8042564 -27.344105
-27.322906 3.3945246 -27.57514
-9.1277962 3.5766382 -27.361773
-7.6958966 3.5180979 -27.523893
-7.3917308 3.5103188 -27.494263
-7.0811601 3.5980773 -27.321651
-6.6817007 3.4816208 -27.334467
-6.3041039 3.4745421 -27.279295
-17.770668 3.9691737 -27.290565
-17.465551 3.9563255 -27.280609
-17.030945 3.9403419 -27.241243
-16.564821 3.931973 -27.212557
-21.574898 4.1981993 -27.591576
-19.830458 4.0669098 -27.476931
-19.384892 4.1197381 -27.390173
-19.008631 4.0928125 -27.369198
-18.512278 4.0540328 -27.298492
-18.175083 4.0325541 -27.268406
-17.791796 4.0216508 -27.381138
-27.552582 4.7617359 -27.470598
-26.631853 4.5498781 -27.357628
-25.854853 4.502749 -27.526335
-11.767444 4.7130094 -27.324915
-17.793785 5.1723108 -27.294825
-17.311861 5.1672854 -27.311069
-17.150335 5.1730189 -27.437315
-11.807302 4.8032532 -27.200562
11.820005 4.9204874 -27.405918
30.620562 5.0120173 -27.362007
-20.57375 5.4294648 -27.480654
-19.327494 5.3010778 -27.328838
-18.970547 5.2689991 -27.281178
-18.551512 5.225296 -27.233448
-18.297554 5.2552238 -27.204275
-17.783278 5.2218428 -27.346327
-17.397898 5.212635 -27.404259
-11.724927 5.8705902 -27.38339
-11.405499 5.9232211 -27.453512
-15.743687 6.2493472 -27.446569
-11.532706 6.0498614 -27.382534
10.568027 6.1486526 -27.331562
-0.14680895 7.4246387 -27.589108
0.26836583 7.3509254 -27.203291
-7.0044537 8.4275074 -27.261131
-6.4435759 8.4376831 -27.428625
-23.93371 8.850853 -27.291296
-28.835501 -2.1754558 -26.81633
-11.790014 -0.80377746 -26.947092
-6.3303647 -0.58497882 -26.969339
-27.532511 0.1792116 -27.145977
-11.757607 0.37307569 -26.945301
-6.1298385 0.19631833 -27.039768
-5.9614086 0.14520344 -27.153412
-27.549763 0.44357353 -27.174736
-9.52845 0.43097997 -26.862751
-6.0605946 0.45486185 -26.9991
-5.9103689 0.4569675 -27.132328
-6.0607762 1.1364112 -26.900578
-7.3647046 1.3932313 -27.168232
-6.1566057 1.3678913 -27.08186
-5.8903403 1.4147176 -26.977417
-29.36721 1.9197903 -27.030399
-27.384295 1.8486749 -27.028425
-29.109718 2.0519156 -27.085119
-9.0868502 2.3543084 -26.968195
-6.9388876 2.3891702 -26.905842
-5.8035073 2.4049416 -26.844919
10.383359 2.4370162 -26.803846
-9.4808311 3.5674441 -27.158607
-9.0075397 3.4799793 -26.841698
-7.8435459 3.4577835 -26.939873
-7.391222 3.4708171 -27.109171
-6.8778381 3.4422345 -27.078733
-6.3835368 3.4485514 -27.015188
30.311842 3.3416331 -27.186684
30.66869 3.5787807 -26.915981
31.213577 3.3868117 -27.015902
-17.666094 3.912245 -27.188053
-17.466644 3.9324718 -27.166719
-16.988997 3.9213691 -27.118063
-16.665781 3.913909 -27.128225
-16.182928 3.8844981 -27.060612
-15.943478 3.9412525 -27.067629
-15.220533 3.8958361 -27.000458
-14.541791 3.8055027 -26.908422
-14.212229 3.7451928 -26.837032
-13.95504 3.7932911 -27.024359
-25.990458 4.4641953 -26.853069
-13.938556 4.7992282 -26.901836
-11.766991 4.7303758 -26.912548
11.669917 4.7691135 -26.831539
-18.221926 5.1925874 -27.189299
-17.90801 5.1651573 -27.155725
-16.88307 5.1109371 -27.024307
-16.602394 5.0774078 -27.097776
-16.213999 5.0445743 -27.006977
-15.873637 5.0207849 -26.944031
-15.399087 4.9726357 -26.898453
-15.014922 4.9912992 -26.851713
-14.628039 4.9507513 -26.834728
-14.149715 4.8778038 -26.873489
-13.757082 4.8842936 -26.860619
-13.526598 4.8402252 -26.87904
-11.847044 4.9453301 -26.883772
9.7865667 4.8092904 -26.823425
-18.208344 5.240469 -27.159847
-17.210011 5.290072 -26.819351
-17.042547 5.2761812 -26.831694
-16.571581 5.2495837 -26.898066
-16.196054 5.2316952 -26.973499
-28.051601 6.1561718 -27.129471
-17.402248 6.3536015 -26.862282
11.116354 6.1455464 -27.116911
11.695973 6.1524954 -26.938896
-5.239778 7.0947886 -27.156195
-0.54810709 7.1859307 -26.802179
-5.3252897 7.6439724 -27.135239
-5.2193809 8.296031 -27.09304
-6.3448868 -1.0859035 -26.76227
-6.5024729 -0.51773918 -26.680407
-6.5361471 0.085080042 -26.484074
-6.2732205 0.14286269 -26.674582
-7.4223213 0.45200145 -26.437067
-6.2485375 0.45971632 -26.62266
-7.8613997 1.2172856 -26.558916
-6.2039866 1.2788295 -26.617197
-27.070206 1.7129784 -26.642984
-6.5094914 2.311511 -26.476971
-6.1263318 2.3211198 -26.530439
-5.9820752 2.3927715 -26.715942
-8.7373791 2.4031293 -26.526608
-6.7477627 2.4103293 -26.689028
-9.5014687 3.5209413 -26.763559
-8.77456 3.4918098 -26.695078
-7.852541 3.4587913 -26.708492
-6.9215913 3.3681891 -26.443647
-6.6935287 3.3828468 -26.52219
11.822638 3.5616426 -26.600237
-14.024488 3.7465992 -26.767887
12.626029 3.7032628 -26.628025
12.832047 3.7073257 -26.57641
-14.169977 4.7982321 -26.773996
-12.866997 4.7373519 -26.596193
-12.637452 4.7407565 -26.594442
-8.5464201 4.532825 -26.762634
10.667793 4.6633611 -26.432611
11.830979 4.7721653 -26.786057
-14.611089 4.8735447 -26.778793
-14.239535 4.8706303 -26.7509
-13.732542 5.0367074 -26.726
-13.305346 4.8332357 -26.632635
-13.065517 4.8728299 -26.627234
-12.384916 4.9397211 -26.608641
10.965028 4.8167896 -26.468124
12.51332 4.9131255 -26.570879
30.513235 4.9920731 -26.760761
33.223694 5.1002445 -26.481251
-15.451925 5.9605436 -26.486137
-15.001612 5.9218946 -26.425385
-14.660851 5.9317055 -26.583855
-14.187762 5.8770375 -26.458864
-13.818663 5.8986721 -26.539705
-13.418192 5.8041563 -26.492821
-13.028347 5.8052545 -26.511108
-12.51883 5.7773309 -26.49073
-12.238011 5.6899667 -26.406832
-11.828539 5.7358475 -26.548931
-11.596897 5.8493519 -26.693689
10.683043 5.8784294 -26.651207
10.86846 5.8899546 -26.649805
11.511643 5.9173288 -26.559206
12.01979 5.9302335 -26.410316
13.04811 5.9231281 -26.405285
-28.03194 6.1391702 -26.789406
-17.176111 6.2984552 -26.745522
-16.562462 6.1201291 -26.601084
-16.256233 6.2115226 -26.64872
-15.759604 6.057919 -26.51947
-15.08387 6.1363802 -26.593376
-14.461132 6.0357928 -26.630409
-14.160395 6.0265884 -26.564667
11.183528 6.055397 -26.557909
0.83841836 7.083128 -26.409988
10.704253 7.0528865 -26.514013
11.533975 7.1397271 -26.62686
-25.80538 7.2794065 -26.57777
0.64603883 7.5404544 -26.438375
1.1671926 7.5724726 -26.546467
46.642529 8.4686852 -26.565479
-6.8411417 -1.0730612 -26.341734
-7.0111127 -0.49102944 -26.178677
-6.692018 -0.57377642 -26.342445
-9.2249851 0.28012526 -26.246912
-6.653357 0.14702676 -26.348875
-6.4779463 0.4470281 -26.356207
-6.4133573 1.1138535 -26.11882
-6.3115211 1.1144469 -26.168388
-6.7479863 1.3938644 -26.321665
-6.3557076 1.3024697 -26.252199
-10.493893 2.3068585 -26.041842
-8.166297 2.3851082 -26.239746
-7.20398 2.3822041 -26.183764
-6.959219 2.2750771 -26.067766
-6.1589179 2.3349121 -26.061371
-5.7326641 2.359612 -26.284307
-8.6335011 2.4238863 -26.307783
-9.3754692 3.4443638 -26.217251
-8.6293411 3.5469201 -26.369926
-7.8375869 3.3705528 -26.219791
10.816717 3.572643 -26.062708
30.869846 3.3715963 -26.37591
33.766117 3.5064898 -26.203999
-8.5394659 4.3480206 -26.081398
-8.3978367 4.3652921 -26.099535
-4.135745 4.2882338 -26.163471
-26.471951 4.4381776 -26.048744
-26.351881 4.443285 -26.217213
-25.633356 4.5138073 -26.134472
10.16543 4.7266493 -26.078993
10.751657 4.6512413 -26.307232
11.937573 4.7039366 -26.191391
12.168571 4.6827531 -26.227104
12.463345 4.6520271 -26.008249
13.100906 4.7503667 -26.195955
11.119435 4.8122263 -26.374918
12.611529 4.8872576 -26.330141
33.263351 5.1115065 -26.279409
-26.388889 5.8589907 -26.297276
-13.903257 5.928916 -26.368729
-13.301247 5.8960733 -26.261557
-12.969122 5.9594617 -26.215925
-12.638376 5.8378038 -26.232206
-12.144289 5.826067 -26.256401
-11.889271 5.8497109 -26.29978
-11.551291 5.6860108 -26.264877
12.334033 5.8206029 -26.131821
12.545214 5.8782029 -26.177181
13.143217 5.9607468 -26.088173
-14.163353 6.064857 -26.29114
-13.794488 6.0288835 -26.252871
-4.6046963 6.3324656 -26.040678
-24.51297 7.0327225 -26.218483
1.1969427 7.1220274 -26.320129
10.687185 6.9718709 -26.114195
-28.167063 7.5201502 -26.372259
1.5252087 7.2110243 -26.163622
1.613523 7.4193301 -26.076143
2.0994079 7.9333816 -26.052576
-7.3729339 -0.74685895 -25.691109
-7.1261978 -0.57767308 -25.786051
-7.0118084 0.18845457 -25.850124
-6.6836238 0.22197421 -25.899126
-11.043094 0.49108043 -25.8062
-6.9942474 0.4362075 -25.745888
-6.6956387 0.43631458 -25.855194
-8.7313118 1.1407108 -25.968307
-6.6197739 1.1616839 -25.758158
-8.5777979 1.3187801 -25.837011
-7.6717601 1.3911223 -25.98897
-7.1588745 1.3836483 -25.989315
-6.6784883 1.3902619 -25.637545
-8.1073971 2.3695917 -25.842144
-7.8676195 2.3453689 -25.827522
-7.5650854 2.3493395 -25.968058
-6.9157562 2.2801092 -25.779907
-6.6158743 2.3200862 -25.844706
-6.1452484 2.3396673 -25.944664
-29.062828 3.199625 -25.975565
-9.1212711 3.52616 -25.999945
10.963877 3.5668502 -25.946661
30.629971 3.4278681 -25.883249
31.366402 3.3392751 -25.708286
13.159896 3.6492767 -25.818733
-8.8529472 4.3605833 -25.917252
-4.8288817 4.2757106 -25.606348
-4.5581779 4.2397733 -25.774973
-27.760311 4.6683455 -25.954788
-26.259731 4.5354023 -25.776031
-8.4744177 4.4226632 -25.719744
12.458125 4.7022834 -25.941828
13.414852 4.7382169 -25.888468
-0.11070746 5.5867696 -25.909708
-25.830961 5.8335633 -25.786383
0.10518412 6.2218742 -25.899994
-25.897215 7.1800308 -25.75794
-0.83227599 7.0928283 -25.737717
-26.818747 7.3212028 -25.870132
-26.104916 7.2300987 -25.725683
-5.6056757 7.5562005 -25.962416
-5.5502911 7.3629556 -25.81778
-0.69864458 7.2511744 -25.950005
-26.074898 8.6209621 -25.880379
-37.939621 -0.96621394 -25.386587
-18.600735 -1.1389437 -25.309977
-10.65293 -1.0516284 -25.272051
-7.2499046 -1.0492188 -25.594622
-7.4142537 -0.55652827 -25.321722
-7.3178387 0.13281673 -25.284262
-7.1996489 0.065505341 -25.563757
-7.8854709 0.4671835 -25.477625
-7.2003627 0.46309116 -25.428635
-7.0353842 0.45021635 -25.523888
-7.9133005 1.181735 -25.355988
-6.909297 1.1279395 -25.380577
-6.8603592 1.3475189 -25.457016
-6.7874784 1.2750405 -25.544542
-8.5438128 2.2110152 -25.348894
-7.7394919 2.2958579 -25.393536
-7.3818421 2.2803617 -25.389191
-6.9970741 2.2784359 -25.38689
-9.5728397 3.4965265 -25.544453
-7.2885928 3.2550437 -25.382727
-7.1754079 3.2486093 -25.353888
31.238249 3.5019205 -25.370182
32.174225 3.3399837 -25.300545
33.079369 3.569705 -25.33256
32.279263 3.6060967 -25.466486
34.198364 3.6787679 -25.571096
-9.2788401 4.3934226 -25.509871
-8.5218849 4.3455324 -25.553892
-26.390574 4.5111928 -25.527782
-26.446026 5.8687081 -25.481937
-25.066122 5.8322439 -25.471001
-0.53160334 5.9066582 -25.567398
11.68142 5.6538715 -25.52812
12.342069 5.9572992 -25.492002
-26.556978 7.1395011 -25.388424
0.36263326 6.8059845 -25.387218
12.221531 6.8109355 -25.432911
-26.556538 7.232842 -25.49066
-26.50219 8.6070929 -25.469233
-7.6587777 -1.0293292 -24.960754
-7.7523017 -0.58014971 -24.990564
-7.5470457 -0.49417922 -25.127026
-7.7526417 0.197694 -24.915335
-7.4528642 0.17184599 -24.970676
-30.202559 0.68318719 -25.113338
-8.1203871 0.43313795 -24.944647
-7.6418514 0.45761564 -24.979811
-7.4006214 0.44435456 -25.053864
-9.4600821 1.1965395 -25.079298
-8.0586443 1.1001501 -25.105339
-7.9418855 1.1562996 -24.883858
-7.2927732 1.1235478 -24.940981
-7.0728164 1.1693827 -25.068832
-71.220551 1.2975996 -24.8461
-11.234487 1.4401684 -25.059187
-8.112258 1.3539542 -24.800957
-7.9460988 1.3575854 -25.051357
-7.3454442 1.3506839 -24.823635
-7.0843849 1.3243006 -25.044098
-8.8847876 2.3335245 -25.037018
-7.9805388 2.1929834 -25.051197
-7.3018341 2.2870309 -25.081835
-7.0548253 2.2431428 -25.027792
-12.589444 3.4312925 -25.186352
-8.26616 3.2249746 -24.859354
-7.9011912 3.2545199 -25.030832
-7.3411708 3.2502766 -25.089426
